58.0 15.0 4.28530566062e-09
25.0 18.0 2.27514680463e-10
100.0 21.0 0.000249553064553
161.0 24.0 0.0
84.0 40.0 0.411631119322
98.0 41.0 0.211556588942
73.0 42.0 0.253552962545
114.0 42.0 0.676940729626
81.0 46.0 0.441917796149
91.0 46.0 0.342302213184
110.0 46.0 0.811009958616
111.0 46.0 0.850842019354
117.0 50.0 0.516268456119
67.0 51.0 0.207188935568
48.0 52.0 0.622315317776
55.0 53.0 0.888882837194
57.0 53.0 0.826122752031
15.0 56.0 7.76313237953e-05
54.0 57.0 0.79994317806
126.0 57.0 0.110852868109
44.0 58.0 0.373443051814
133.0 66.0 0.349932651768
140.0 69.0 0.541587997661
47.0 70.0 0.382077644517
138.0 74.0 0.646534892287
25.0 75.0 0.000409075716952
45.0 75.0 0.397792014498
146.0 79.0 0.461212712547
139.0 81.0 0.628718347012
46.0 86.0 0.549702093189
143.0 88.0 0.688556861096
98.0 89.0 8.47165539305e-08
181.0 89.0 2.95900193719e-12
42.0 90.0 0.607632320629
141.0 90.0 0.672342135351
47.0 93.0 0.686551172752
51.0 99.0 0.420744478393
143.0 100.0 0.981391408053
42.0 101.0 0.363006681684
138.0 101.0 0.72633367502
145.0 102.0 0.978440834962
145.0 103.0 0.975608725858
119.0 108.0 0.000530526713788
48.0 110.0 0.708297376004
48.0 112.0 0.7362313848
142.0 112.0 0.946895888843
56.0 113.0 0.484605731844
145.0 113.0 0.818055473893
138.0 114.0 0.824820192587
140.0 118.0 0.79035310946
49.0 120.0 0.432044615239
58.0 122.0 0.498722281475
22.0 123.0 0.535300965063
68.0 123.0 0.594655396473
22.0 124.0 0.535300915048
65.0 126.0 0.743836652598
137.0 126.0 0.493243874503
182.0 128.0 1.24200960808e-08
70.0 131.0 0.517645605506
132.0 132.0 0.950993844107
60.0 133.0 0.388553317024
132.0 134.0 0.992046757218
95.0 135.0 0.479013538757
131.0 135.0 1.0
78.0 137.0 0.4021565155
127.0 138.0 0.840258709875
83.0 140.0 0.445316945784
93.0 140.0 0.686950239083
104.0 140.0 0.313072217277
122.0 141.0 0.616432771555
155.0 141.0 2.89075910851e-05
63.0 142.0 0.150575080095
117.0 144.0 0.437237953032
93.0 145.0 0.494556858861
108.0 148.0 0.244874303144
121.0 164.0 0.000370440407143
81.0 169.0 1.88613600705e-05
38.0 171.0 1.47532551901e-13
174.0 181.0 1.30274026962e-11
139.0 185.0 1.77573446062e-07
74.0 191.0 1.83919799427e-05
102.0 203.0 6.81627391025e-09
