58.0 15.0 1.52632062768e-09
25.0 18.0 8.10351155723e-11
100.0 21.0 8.88988307639e-05
161.0 24.0 0.0
84.0 40.0 0.192857038185
98.0 41.0 0.0865048011197
73.0 42.0 0.106634125685
114.0 42.0 0.383043189548
81.0 46.0 0.211456355217
91.0 46.0 0.152893247331
110.0 46.0 0.50660850776
111.0 46.0 0.547582917272
117.0 50.0 0.260283970014
67.0 51.0 0.0844726091617
48.0 52.0 0.338454446248
55.0 53.0 0.588708069337
57.0 53.0 0.521910003664
15.0 56.0 2.76517412973e-05
54.0 57.0 0.49558926228
126.0 57.0 0.0424126162864
44.0 58.0 0.170407274865
133.0 66.0 0.157120543102
140.0 69.0 0.277997915141
47.0 70.0 0.175388023695
138.0 74.0 0.357840955549
25.0 75.0 0.00014574076851
45.0 75.0 0.184594701893
146.0 79.0 0.223685986375
139.0 81.0 0.343521608335
46.0 86.0 0.283796853431
143.0 88.0 0.392932508287
98.0 89.0 3.01739580831e-08
181.0 89.0 1.05391745127e-12
42.0 90.0 0.326989940238
141.0 90.0 0.379168536565
47.0 93.0 0.391214489508
51.0 99.0 0.19837820982
143.0 100.0 0.697458239677
42.0 101.0 0.164460001462
138.0 101.0 0.426126320711
145.0 102.0 0.693787761218
145.0 103.0 0.690277627692
119.0 108.0 0.000189024576879
48.0 110.0 0.410078439978
48.0 112.0 0.435091107519
142.0 112.0 0.655398035873
56.0 113.0 0.238922742574
145.0 113.0 0.513705279778
138.0 114.0 0.520579526539
140.0 118.0 0.486165452933
49.0 120.0 0.205313988466
58.0 122.0 0.248339904196
22.0 123.0 0.27354584346
68.0 123.0 0.317034848234
22.0 124.0 0.273545808184
65.0 126.0 0.442056881704
137.0 126.0 0.244665095291
182.0 128.0 4.42373329777e-09
70.0 131.0 0.261232795244
132.0 132.0 0.660298270502
60.0 133.0 0.179159612966
132.0 134.0 0.710829053824
95.0 135.0 0.23523885347
131.0 135.0 0.720928327685
78.0 137.0 0.187184694776
127.0 138.0 0.536492087971
83.0 140.0 0.21358903043
93.0 140.0 0.39155596864
104.0 140.0 0.137075312674
122.0 141.0 0.333835534962
155.0 141.0 1.02963641146e-05
63.0 142.0 0.0591310892503
117.0 144.0 0.208535251291
93.0 145.0 0.245543480013
108.0 148.0 0.102385445581
121.0 164.0 0.000131972972777
81.0 169.0 6.71803421403e-06
38.0 171.0 5.25156241317e-14
174.0 181.0 4.64003307205e-12
139.0 185.0 6.32473086948e-08
74.0 191.0 6.55084856275e-06
102.0 203.0 2.42778941165e-09
