58.0 15.0 0.180841840312
25.0 18.0 0.0792410071059
100.0 21.0 0.313609817882
161.0 24.0 0.0
84.0 40.0 0.590083039756
98.0 41.0 0.612995752823
73.0 42.0 0.591005233207
114.0 42.0 0.574182607631
81.0 46.0 0.609445443039
91.0 46.0 0.619589544752
110.0 46.0 0.627478210537
111.0 46.0 0.624598726689
117.0 50.0 0.62754365851
67.0 51.0 0.635130555242
48.0 52.0 0.628210048327
55.0 53.0 0.660644480456
57.0 53.0 0.661326165449
15.0 56.0 0.215828040067
54.0 57.0 0.679861806551
126.0 57.0 0.640133104208
44.0 58.0 0.646742152726
133.0 66.0 0.698476234721
140.0 69.0 0.685674600984
47.0 70.0 0.717268330362
138.0 74.0 0.769128801552
25.0 75.0 0.453564760032
45.0 75.0 0.729190399827
146.0 79.0 0.752201013732
139.0 81.0 0.84574475348
46.0 86.0 0.778599775351
143.0 88.0 0.89394774439
98.0 89.0 0.286726802022
181.0 89.0 0.127806333379
42.0 90.0 0.777876354077
141.0 90.0 0.92543678271
47.0 93.0 0.819729325973
51.0 99.0 0.856747698355
143.0 100.0 0.975631976943
42.0 101.0 0.818304496577
138.0 101.0 0.993816134921
145.0 102.0 0.962502160369
145.0 103.0 0.964817135151
119.0 108.0 0.73512214344
48.0 110.0 0.893618754077
48.0 112.0 0.891887258693
142.0 112.0 0.989225755127
56.0 113.0 0.926039634574
145.0 113.0 0.955412781974
138.0 114.0 1.0
140.0 118.0 0.97690974922
49.0 120.0 0.863103986863
58.0 122.0 0.923839630997
22.0 123.0 0.299874836944
68.0 123.0 0.899549166808
22.0 124.0 0.291886899011
65.0 126.0 0.913026099056
137.0 126.0 0.934456882705
182.0 128.0 0.126401579856
70.0 131.0 0.883716958737
132.0 132.0 0.894548812881
60.0 133.0 0.825398701333
132.0 134.0 0.87433143691
95.0 135.0 0.785368462728
131.0 135.0 0.866265296606
78.0 137.0 0.83323660507
127.0 138.0 0.841058733532
83.0 140.0 0.80374235421
93.0 140.0 0.788998136966
104.0 140.0 0.787730764886
122.0 141.0 0.811828570777
155.0 141.0 0.471826083933
63.0 142.0 0.690540518925
117.0 144.0 0.778655676057
93.0 145.0 0.752571677372
108.0 148.0 0.726543502804
121.0 164.0 0.42708777369
81.0 169.0 0.300684197931
38.0 171.0 0.0454089401925
174.0 181.0 0.0201229306685
139.0 185.0 0.100442724962
74.0 191.0 0.0872821003119
102.0 203.0 0.0476100555223
